0.299686 0.014937 0.981293
-0.426238 -0.255851 0.935418
0.061286 0.509719 0.950390
0.447665 -0.391751 0.982844
-0.870944 0.056803 0.953537
0.862667 0.283885 0.922119
-0.371265 -0.749454 0.842913
-0.537143 0.611030 0.938563
1.144756 -0.286147 0.789162
-1.206617 -0.327062 0.910665
0.490683 0.784147 0.846074
0.377590 -0.835456 0.844623
-1.258232 0.529705 0.845820
1.464620 0.221004 0.868189
-0.956087 -0.844733 0.922941
-0.283527 1.103633 0.850968
1.230171 -0.609193 0.873113
-1.753915 -0.042974 0.853834
1.222778 0.851626 0.811674
-0.048850 -1.113357 0.771217
-1.155824 0.908324 0.801363
1.782530 -0.194181 0.775190
-1.511314 -0.664605 0.708824
0.384326 1.288999 0.665379
0.954883 -1.142740 0.817851
-1.872052 0.389128 0.726571
1.834120 0.644970 0.713599
-0.812881 -1.253075 0.718961
-0.719725 1.260026 0.714424
1.861169 -0.601584 0.737654
-2.086990 -0.333118 0.678007
1.234677 1.225324 0.714169
0.310362 -1.436981 0.590590
-1.873181 0.899365 0.620004
2.267349 0.237015 0.613414
-1.588019 -1.111649 0.669651
0.002485 1.534709 0.670123
1.599466 -1.208032 0.621041
-2.353722 0.092813 0.627992
1.859825 1.011336 0.614637
-0.427096 -1.611046 0.589070
-1.395770 1.316288 0.603142
2.260744 -0.390165 0.487695
-2.164379 -0.795702 0.603950
0.874043 1.483105 0.617457
1.020464 -1.556402 0.531304
-2.298360 0.674874 0.589929
2.412828 0.498954 0.485335
-1.331547 -1.542976 0.577853
-0.551346 1.736060 0.505666
2.090367 -1.022709 0.466988
-2.603004 -0.235068 0.470004
1.642211 1.299869 0.557703
0.063229 -1.822150 0.481866
-1.804781 1.195825 0.444574
2.651484 -0.179510 0.481746
-2.083598 -1.143497 0.397384
0.397978 1.766055 0.417855
1.492523 -1.559526 0.481777
-2.698454 0.424633 0.403310
2.375871 0.880316 0.426504
-0.869471 -1.763326 0.386111
-1.095290 1.720889 0.394130
2.543019 -0.796321 0.412476
-2.595358 -0.631260 0.382094
1.361216 1.698961 0.391069
0.684363 -1.748766 0.272670
-2.335797 1.055401 0.368681
2.902406 0.386599 0.257741
-1.844817 -1.459352 0.254249
-0.223354 1.947203 0.212810
1.995814 -1.295717 0.287219
-2.896486 0.020687 0.231974
2.076308 1.280412 0.216415
-0.363962 -1.899452 0.251930
-1.726756 1.500801 0.212097
2.816367 -0.401601 0.244770
-2.520699 -1.012036 0.241988
0.889426 1.811585 0.259395
1.323393 -1.746623 0.132507
-2.776899 0.728012 0.190876
2.740068 0.717644 0.242728
-1.279031 -1.885308 0.140396
-0.956398 1.725270 0.138494
2.616321 -1.004971 0.096373
-2.952177 -0.349493 0.152881
1.735637 1.607277 0.136920
0.393961 -1.942626 0.135785
-2.312025 1.320659 0.080788
3.036622 -0.000766 0.098119
-2.137690 -1.456776 0.181099
0.240219 1.966463 0.123586
1.913147 -1.674314 0.087520
-2.965952 0.289576 0.011156
2.461954 1.115574 0.114405
-0.669551 -1.945163 0.121448
-1.492940 1.724372 -0.055838
2.926611 -0.578018 0.070842
-2.701767 -0.815492 0.025774
1.172513 1.827122 0.007715
1.063346 -1.860674 -0.007923
-2.670497 0.915833 0.065135
2.932658 0.494112 -0.042309
-1.701499 -1.673939 0.008683
-0.498399 1.960952 -0.056052
2.355752 -1.317749 -0.066770
-3.028424 -0.101139 -0.103530
2.081681 1.526934 -0.090680
-0.073823 -1.982977 -0.085101
-2.034544 1.510638 0.005776
2.954952 -0.213006 -0.157247
-2.375334 -1.247950 -0.170347
0.625268 1.903440 -0.070932
1.634787 -1.674483 -0.107330
-2.757331 0.531797 -0.174650
2.582217 0.887001 -0.081043
-1.007596 -1.889897 -0.207769
-1.112138 1.845577 -0.185266
2.662450 -0.844185 -0.199939
-2.822137 -0.549294 -0.199198
1.534473 1.772670 -0.175401
0.589941 -1.997910 -0.195602
-2.463734 1.073523 -0.182268
2.932293 0.214087 -0.320501
-1.925333 -1.498181 -0.213158
0.035459 1.944040 -0.293966
1.951731 -1.389541 -0.273840
-2.936572 0.122739 -0.332546
2.290157 1.259736 -0.230762
-0.447474 -1.864270 -0.301603
-1.616701 1.562288 -0.369986
2.696213 -0.403957 -0.324562
-2.471196 -0.866179 -0.411657
0.859230 1.795482 -0.315395
1.124625 -1.663991 -0.334480
-2.631714 0.700457 -0.314726
2.664932 0.509541 -0.297614
-1.299828 -1.561219 -0.394185
-0.681256 1.735237 -0.258154
2.287348 -0.936849 -0.427365
-2.701636 -0.366887 -0.424143
1.751849 1.359605 -0.361389
0.201445 -1.858397 -0.450080
-1.978819 1.239666 -0.461807
2.644716 -0.050176 -0.496344
-2.069174 -1.179593 -0.410856
0.207308 1.760661 -0.497498
1.516211 -1.374671 -0.500908
-2.499114 0.299204 -0.465675
2.214915 0.866230 -0.465616
-0.728621 -1.627833 -0.507365
-1.194791 1.531449 -0.512402
2.428752 -0.660322 -0.526966
-2.447323 -0.581545 -0.589074
1.020034 1.501683 -0.489716
0.624052 -1.651258 -0.592164
-2.173484 0.874086 -0.605368
2.370963 0.349262 -0.612776
-1.416279 -1.357066 -0.645607
-0.354919 1.690910 -0.611013
1.808312 -1.051366 -0.597002
-2.362534 0.061008 -0.666946
1.614032 1.028873 -0.691735
-0.114853 -1.500670 -0.683066
-1.503754 1.174597 -0.575444
2.099338 -0.204376 -0.708788
-1.811758 -0.882902 -0.679271
0.452541 1.384198 -0.605708
1.090474 -1.298214 -0.728509
-2.136493 0.444030 -0.696545
1.944278 0.564988 -0.761090
-0.850625 -1.281003 -0.650472
-0.567919 1.298203 -0.763315
1.778596 -0.684599 -0.772122
-1.947611 -0.366985 -0.714695
1.090809 1.101547 -0.764147
0.253671 -1.320863 -0.776864
-1.503432 0.804949 -0.775222
1.786668 0.081541 -0.852143
-1.292462 -0.889054 -0.898764
0.047984 1.193746 -0.812901
1.121433 -0.892072 -0.863827
-1.698274 0.098615 -0.820416
1.273936 0.659867 -0.827839
-0.324964 -1.070287 -0.817383
-0.886051 0.911531 -0.842848
1.457911 -0.264917 -0.897682
-1.317818 -0.393329 -0.853468
0.521339 0.790912 -0.858106
0.538752 -0.782212 -0.883306
-1.220277 0.426433 -0.912363
1.036749 0.241505 -0.989609
-0.660261 -0.679763 -0.861370
-0.221580 0.709810 -0.847602
0.868391 -0.394323 -0.957076
-0.948009 -0.096586 -0.933732
0.541326 0.398207 -0.915260
-0.027328 -0.447150 -0.938438
-0.326884 0.304035 -0.965149
0.283408 0.004019 -1.045130
